ply
format ascii 1.0
element vertex 1202
property float x
property float y
property float z
property uchar red
property uchar green
property uchar blue
end_header
-1.837949 -0.771282 -4.201025 22 22 21
-1.968958 -0.833703 -4.541020 22 22 22
-1.951220 -0.833703 -4.541020 22 22 22
-1.933481 -0.833703 -4.541020 22 22 22
-1.798127 -0.782518 -4.262227 22 22 21
-1.774093 -0.779275 -4.244560 22 22 22
-6.625000 -2.937500 -16.000000 22 22 22
-6.562500 -2.937500 -16.000000 22 22 22
-1.362035 -0.735812 -4.007828 54 60 66
-1.328185 -0.725869 -3.953668 51 56 62
-1.310212 -0.724470 -3.946050 24 27 30
-1.292308 -0.723077 -3.938462 2 2 3
-1.273250 -0.720997 -3.927133 0 0 0
-1.254302 -0.718929 -3.915870 0 0 0
-1.236641 -0.717557 -3.908397 0 0 0
-1.626429 -0.955527 -5.204574 0 0 0
-1.610191 -0.957962 -5.217834 0 0 0
-2.224066 -1.560166 -8.497926 14 15 16
-2.181818 -1.553719 -8.462810 11 11 11
-2.131148 -1.540984 -8.393442 3 3 3
-2.115702 -1.553719 -8.462810 1 1 1
-2.095634 -1.563410 -8.515593 1 1 1
-2.066667 -1.566667 -8.533334 1 1 2
-2.037578 -1.569937 -8.551148 11 11 11
-2.008368 -1.573222 -8.569037 44 44 43
-1.979036 -1.576520 -8.587002 135 134 132
-1.945493 -1.576520 -8.587002 174 172 169
-1.907950 -1.573222 -8.569037 174 172 170
-1.870564 -1.569937 -8.551148 174 172 169
-1.833333 -1.566667 -8.533334 173 171 169
-1.785124 -1.553719 -8.462810 168 166 164
-1.744856 -1.547325 -8.427983 142 140 137
-1.694501 -1.531568 -8.342159 130 127 124
-1.651822 -1.522267 -8.291498 144 141 139
-1.609658 -1.513078 -8.241448 148 146 143
-1.558648 -1.495030 -8.143141 167 164 161
-1.505882 -1.474510 -8.031373 199 196 193
-1.471624 -1.471624 -8.015656 211 207 204
-1.434698 -1.465887 -7.984406 211 208 205
-1.400778 -1.463035 -7.968872 213 210 206
-1.366990 -1.460194 -7.953398 215 211 208
-1.330754 -1.454545 -7.922631 222 219 215
-1.294798 -1.448940 -7.892100 235 231 228
-1.249524 -1.432381 -7.801905 241 237 234
-1.216730 -1.429658 -7.787072 245 241 238
-1.186312 -1.429658 -7.787072 243 240 238
-1.153700 -1.426945 -7.772296 238 236 233
-1.123340 -1.426945 -7.772296 226 222 218
-1.092979 -1.426945 -7.772296 217 211 207
-1.062619 -1.426945 -7.772296 215 209 204
-1.032258 -1.426945 -7.772296 213 207 202
-1.000000 -1.424242 -7.757576 211 205 200
-0.969697 -1.424242 -7.757576 207 201 196
-0.939394 -1.424242 -7.757576 195 189 184
-0.909091 -1.424242 -7.757576 182 176 170
-0.878788 -1.424242 -7.757576 180 173 167
-0.846881 -1.421550 -7.742911 181 172 165
-0.816635 -1.421550 -7.742911 181 171 162
-0.786389 -1.421550 -7.742911 181 169 159
-0.756144 -1.421550 -7.742911 174 162 152
-0.725898 -1.421550 -7.742911 151 140 132
-0.696970 -1.424242 -7.757576 132 122 115
-0.666667 -1.424242 -7.757576 132 122 115
-0.637571 -1.426945 -7.772296 148 137 130
-0.608365 -1.429658 -7.787072 160 149 141
-0.579048 -1.432381 -7.801905 162 151 143
-0.551724 -1.440613 -7.846743 160 149 141
-0.525097 -1.451737 -7.907336 149 136 126
-0.497087 -1.460194 -7.953398 141 127 116
-0.468750 -1.468750 -8.000000 142 127 116
-0.439216 -1.474510 -8.031373 143 128 117
-0.408644 -1.477407 -8.047152 143 128 117
-0.378698 -1.483235 -8.078896 143 128 117
-0.347826 -1.486166 -8.094862 142 127 116
-0.316832 -1.489109 -8.110891 137 121 110
-0.286282 -1.495030 -8.143141 118 101 88
-0.255489 -1.500998 -8.175649 108 89 75
-0.224449 -1.507014 -8.208417 108 89 75
-0.195122 -1.528455 -8.325203 108 90 75
-0.164271 -1.544148 -8.410678 108 90 75
-0.132231 -1.553719 -8.462810 105 87 73
-0.099379 -1.556936 -8.480331 95 78 63
-0.066528 -1.563410 -8.515593 98 81 66
-0.033403 -1.569937 -8.551148 111 94 79
0.000000 -1.573222 -8.569037 112 95 81
0.034043 -1.600000 -8.714893 111 95 80
0.068376 -1.606838 -8.752137 110 94 80
0.103226 -1.617204 -8.808602 115 99 85
0.137634 -1.617204 -8.808602 114 95 79
0.171674 -1.613734 -8.789700 91 60 34
0.206009 -1.613734 -8.789700 80 44 14
0.312849 -2.100559 -11.441340 79 44 13
0.357542 -2.100559 -11.441340 79 44 13
0.400000 -2.088889 -11.377778 79 44 13
0.444444 -2.088889 -11.377778 80 44 13
0.492997 -2.106443 -11.473390 79 44 13
0.537815 -2.106443 -11.473390 78 43 13
0.579387 -2.094707 -11.409471 79 43 13
0.617080 -2.071625 -11.283747 80 43 13
0.659341 -2.065934 -11.252748 79 43 13
0.701370 -2.060274 -11.221918 79 43 13
0.753463 -2.083102 -11.346260 80 43 13
0.811268 -2.118310 -11.538028 80 45 13
0.861190 -2.130312 -11.603399 81 45 14
0.901408 -2.118310 -11.538028 80 44 14
0.943820 -2.112360 -11.505618 78 44 14
0.985994 -2.106443 -11.473390 78 44 13
1.019391 -2.083102 -11.346260 77 42 13
1.057851 -2.071625 -11.283747 75 41 12
1.095890 -2.060274 -11.221918 73 39 11
1.139726 -2.060274 -11.221918 71 38 11
1.183562 -2.060274 -11.221918 70 37 11
1.230769 -2.065934 -11.252748 69 37 11
1.274725 -2.065934 -11.252748 69 37 11
1.315068 -2.060274 -11.221918 68 36 11
1.355191 -2.054645 -11.191257 66 35 10
1.398907 -2.054645 -11.191257 65 33 9
1.446575 -2.060274 -11.221918 64 33 9
1.490411 -2.060274 -11.221918 64 33 9
1.534247 -2.060274 -11.221918 65 34 9
1.582418 -2.065934 -11.252748 66 34 10
1.626374 -2.065934 -11.252748 67 36 10
1.674931 -2.071625 -11.283747 69 37 10
1.714286 -2.065934 -11.252748 70 38 10
1.758242 -2.065934 -11.252748 72 39 11
1.807163 -2.071625 -11.283747 75 41 12
1.856354 -2.077348 -11.314918 81 44 13
1.895317 -2.071625 -11.283747 87 47 14
1.944751 -2.077348 -11.314918 90 49 15
1.983471 -2.071625 -11.283747 90 50 15
2.021978 -2.065934 -11.252748 92 51 16
2.065934 -2.065934 -11.252748 92 50 16
2.098361 -2.054645 -11.191257 91 50 16
2.142076 -2.054645 -11.191257 91 50 16
2.191781 -2.060274 -11.221918 92 51 16
2.241758 -2.065934 -11.252748 94 52 17
2.298342 -2.077348 -11.314918 97 54 17
2.368715 -2.100559 -11.441340 98 54 17
2.433803 -2.118310 -11.538028 99 54 17
2.478873 -2.118310 -11.538028 102 56 17
2.502793 -2.100559 -11.441340 104 57 17
2.505495 -2.065934 -11.252748 107 58 17
2.528610 -2.049046 -11.160763 108 59 18
2.565217 -2.043478 -11.130435 109 60 19
2.608696 -2.043478 -11.130435 111 61 18
2.659400 -2.049046 -11.160763 112 62 18
2.702997 -2.049046 -11.160763 113 62 18
2.746594 -2.049046 -11.160763 113 62 18
2.790191 -2.049046 -11.160763 112 61 17
2.833787 -2.049046 -11.160763 113 60 17
2.877384 -2.049046 -11.160763 114 62 18
2.920981 -2.049046 -11.160763 114 61 18
2.964578 -2.049046 -11.160763 114 62 18
3.008174 -2.049046 -11.160763 114 63 19
3.051771 -2.049046 -11.160763 113 62 19
3.112329 -2.060274 -11.221918 113 62 19
3.164835 -2.065934 -11.252748 113 62 19
3.208791 -2.065934 -11.252748 112 61 18
3.252747 -2.065934 -11.252748 111 61 18
3.314917 -2.077348 -11.314918 111 61 18
3.387187 -2.094707 -11.409471 113 63 19
3.441341 -2.100559 -11.441340 114 64 20
3.495798 -2.106443 -11.473390 113 64 20
3.550562 -2.112360 -11.505618 111 63 20
3.595506 -2.112360 -11.505618 113 64 20
3.630252 -2.106443 -11.473390 114 64 20
3.654596 -2.094707 -11.409471 112 62 19
3.678670 -2.083102 -11.346260 112 62 19
3.712707 -2.077348 -11.314918 112 62 19
3.736264 -2.065934 -11.252748 112 62 19
3.780220 -2.065934 -11.252748 110 61 19
3.813699 -2.060274 -11.221918 109 61 19
3.846995 -2.054645 -11.191257 110 61 19
3.880109 -2.049046 -11.160763 111 61 19
3.934426 -2.054645 -11.191257 111 62 18
3.978142 -2.054645 -11.191257 110 60 18
4.043956 -2.065934 -11.252748 109 59 18
4.110497 -2.077348 -11.314918 109 59 17
4.177778 -2.088889 -11.377778 110 59 18
4.245810 -2.100559 -11.441340 108 58 17
4.290503 -2.100559 -11.441340 109 59 17
4.384181 -2.124294 -11.570621 111 60 18
4.416902 -2.118310 -11.538028 112 61 18
4.449438 -2.112360 -11.505618 112 61 18
4.481793 -2.106443 -11.473390 110 60 18
4.526611 -2.106443 -11.473390 111 60 18
4.571429 -2.106443 -11.473390 113 61 18
4.603352 -2.100559 -11.441340 113 61 18
4.596685 -2.077348 -11.314918 114 62 18
4.628099 -2.071625 -11.283747 115 63 19
4.672176 -2.071625 -11.283747 115 63 19
4.716253 -2.071625 -11.283747 114 62 18
4.760331 -2.071625 -11.283747 114 62 18
4.778082 -2.060274 -11.221918 115 62 18
4.821918 -2.060274 -11.221918 115 62 18
4.852459 -2.054645 -11.191257 115 62 18
4.909589 -2.060274 -11.221918 116 64 19
5.036211 -2.094707 -11.409471 117 65 20
5.080780 -2.094707 -11.409471 116 65 20
5.096953 -2.083102 -11.346260 117 65 20
5.057221 -2.049046 -11.160763 117 66 20
5.086957 -2.043478 -11.130435 118 67 21
5.088949 -2.026954 -11.040431 118 66 20
5.132075 -2.026954 -11.040431 117 64 18
5.175202 -2.026954 -11.040431 115 62 17
5.218329 -2.026954 -11.040431 114 62 18
5.289973 -2.037940 -11.100271 114 62 18
5.377049 -2.054645 -11.191257 114 62 19
5.450550 -2.065934 -11.252748 115 63 19
5.479452 -2.060274 -11.221918 114 63 19
5.493188 -2.049046 -11.160763 115 63 19
5.521739 -2.043478 -11.130435 114 63 19
5.565217 -2.043478 -11.130435 112 62 18
5.593496 -2.037940 -11.100271 106 60 21
5.636857 -2.037940 -11.100271 98 67 43
5.680217 -2.037940 -11.100271 100 74 54
5.739130 -2.043478 -11.130435 107 70 40
5.782609 -2.043478 -11.130435 100 82 66
5.841962 -2.049046 -11.160763 92 90 88
6.171429 -2.148571 -11.702857 91 90 88
6.456973 -2.231454 -12.154303 90 89 88
6.523809 -2.238095 -12.190476 89 88 87
6.591045 -2.244776 -12.226866 90 89 88
6.678679 -2.258258 -12.300301 91 90 88
7.044025 -2.364780 -12.880503 90 89 87
7.094340 -2.364780 -12.880503 89 89 87
7.189873 -2.379747 -12.962026 90 89 88
7.263492 -2.387302 -13.003175 90 90 88
-2.644628 -0.793388 -4.231405 16 37 52
-2.628099 -0.793388 -4.231405 16 37 52
-4.760828 -1.446328 -7.713748 16 37 52
-4.730697 -1.446328 -7.713748 17 38 53
-4.630798 -1.424861 -7.599258 17 38 53
-4.484629 -1.388788 -7.406872 17 37 52
-4.562963 -1.422222 -7.585185 17 38 53
-8.742857 -2.742857 -14.628572 18 39 54
-8.685715 -2.742857 -14.628572 18 39 55
-8.628572 -2.742857 -14.628572 18 39 55
-8.421053 -2.694737 -14.371930 18 40 55
-8.306621 -2.675958 -14.271777 19 40 56
-8.222222 -2.666667 -14.222222 19 41 57
-8.166667 -2.666667 -14.222222 20 41 57
-8.111111 -2.666667 -14.222222 20 42 59
-8.055555 -2.666667 -14.222222 20 42 59
-8.027875 -2.675958 -14.271777 17 37 52
-7.972126 -2.675958 -14.271777 7 20 31
-7.888889 -2.666667 -14.222222 7 21 31
-7.779310 -2.648276 -14.124138 15 34 48
-7.724138 -2.648276 -14.124138 20 41 57
-7.668965 -2.648276 -14.124138 19 40 55
-7.640139 -2.657439 -14.173011 10 22 31
-7.584775 -2.657439 -14.173011 3 5 7
-7.006536 -2.509804 -13.385621 6 7 7
-6.954248 -2.509804 -13.385621 16 13 8
-1.910696 -0.797508 -4.253375 24 24 23
-1.884297 -0.793388 -4.231405 24 24 24
-1.867769 -0.793388 -4.231405 24 24 24
-2.020293 -0.865840 -4.617813 24 24 23
-1.968958 -0.851441 -4.541020 24 24 24
-1.839080 -0.802508 -4.280042 24 24 24
-1.814776 -0.799168 -4.262227 24 24 24
-1.790674 -0.795855 -4.244560 24 24 24
-1.770424 -0.794209 -4.235781 24 24 24
-1.761163 -0.797508 -4.253375 24 24 24
-1.744548 -0.797508 -4.253375 24 24 24
-1.366045 -0.753680 -4.019627 50 56 63
-1.338521 -0.747082 -3.984436 43 48 54
-1.312741 -0.741313 -3.953668 14 16 18
-1.294798 -0.739884 -3.946050 1 1 1
-1.276923 -0.738462 -3.938462 0 0 0
-1.254302 -0.734226 -3.915870 0 0 0
-1.236641 -0.732824 -3.908397 0 0 0
-1.220210 -0.732126 -3.904671 0 0 0
-1.608142 -0.977099 -5.211196 1 1 1
-1.589809 -0.978344 -5.217834 14 16 17
-2.156942 -1.545272 -8.241448 16 17 18
-2.137652 -1.554656 -8.291498 13 13 13
-2.105263 -1.554656 -8.291498 3 3 3
-2.098361 -1.573771 -8.393442 1 1 1
-2.091286 -1.593361 -8.497926 0 0 0
-2.066667 -1.600000 -8.533334 2 2 2
-2.033333 -1.600000 -8.533334 15 15 15
-2.004175 -1.603340 -8.551148 30 30 30
-1.974895 -1.606695 -8.569037 81 80 79
-1.941423 -1.606695 -8.569037 152 150 148
-1.903967 -1.603340 -8.551148 174 172 169
-1.866667 -1.600000 -8.533334 175 173 171
-1.833333 -1.600000 -8.533334 175 173 170
-1.792531 -1.593361 -8.497926 166 163 161
-1.752066 -1.586777 -8.462810 136 133 130
-1.711934 -1.580247 -8.427983 126 123 120
-1.661914 -1.564155 -8.342159 141 139 136
-1.612903 -1.548387 -8.258064 148 145 143
-1.561753 -1.529881 -8.159363 165 162 159
-1.508841 -1.508841 -8.047152 193 190 187
-1.474510 -1.505882 -8.031373 207 203 200
-1.437500 -1.500000 -8.000000 211 207 204
-1.400778 -1.494163 -7.968872 212 209 205
-1.366990 -1.491262 -7.953398 220 216 213
-1.333333 -1.488372 -7.937984 233 230 226
-1.297297 -1.482625 -7.907336 239 235 232
-1.254302 -1.468451 -7.831740 241 238 235
-1.219048 -1.462857 -7.801905 244 241 238
-1.188571 -1.462857 -7.801905 244 241 239
-1.155894 -1.460076 -7.787072 242 239 237
-1.125475 -1.460076 -7.787072 229 226 224
-1.092979 -1.457306 -7.772296 216 212 210
-1.062619 -1.457306 -7.772296 213 210 207
-1.030303 -1.454545 -7.757576 215 212 209
-1.000000 -1.454545 -7.757576 217 214 212
-0.969697 -1.454545 -7.757576 214 211 208
-0.939394 -1.454545 -7.757576 194 192 190
-0.909091 -1.454545 -7.757576 183 180 178
-0.878788 -1.454545 -7.757576 179 176 174
-0.846881 -1.451796 -7.742911 177 173 169
-0.816635 -1.451796 -7.742911 169 161 155
-0.786389 -1.451796 -7.742911 170 159 150
-0.756144 -1.451796 -7.742911 177 165 155
-0.725898 -1.451796 -7.742911 172 160 151
-0.695652 -1.451796 -7.742911 151 140 132
-0.666667 -1.454545 -7.757576 135 125 118
-0.637571 -1.457306 -7.772296 145 135 127
-0.609524 -1.462857 -7.801905 160 149 141
-0.580153 -1.465649 -7.816794 162 151 143
-0.552783 -1.474088 -7.861804 159 148 139
-0.525097 -1.482625 -7.907336 149 136 127
-0.497087 -1.491262 -7.953398 142 128 117
-0.468750 -1.500000 -8.000000 142 128 117
-0.438356 -1.502935 -8.015656 142 128 117
-0.408644 -1.508841 -8.047152 143 129 118
-0.377953 -1.511811 -8.062992 143 128 117
-0.347140 -1.514793 -8.078896 141 127 115
-0.315582 -1.514793 -8.078896 131 116 104
-0.285149 -1.520792 -8.110891 112 95 81
-0.254980 -1.529881 -8.159363 107 89 74
-0.224900 -1.542169 -8.224899 107 90 75
-0.195519 -1.564155 -8.342159 108 90 76
-0.164271 -1.577002 -8.410678 107 90 75
-0.132231 -1.586777 -8.462810 99 82 68
-0.099379 -1.590062 -8.480331 90 74 59
-0.066528 -1.596674 -8.515593 98 82 67
-0.033403 -1.603340 -8.551148 111 94 80
0.000000 -1.606695 -8.569037 112 96 81
0.034043 -1.634043 -8.714893 110 94 80
0.068376 -1.641026 -8.752137 111 95 81
0.103226 -1.651613 -8.808602 117 101 87
0.137634 -1.651613 -8.808602 111 90 72
0.171306 -1.644540 -8.770878 87 55 27
0.205567 -1.644540 -8.770878 81 45 14
0.312849 -2.145252 -11.441340 81 45 14
0.357542 -2.145252 -11.441340 80 45 14
0.401114 -2.139276 -11.409471 79 45 14
0.444444 -2.133333 -11.377778 79 44 13
0.490251 -2.139276 -11.409471 79 43 13
0.531856 -2.127424 -11.346260 78 43 13
0.573003 -2.115702 -11.283747 78 43 13
0.615385 -2.109890 -11.252748 79 43 13
0.659341 -2.109890 -11.252748 79 43 13
0.709141 -2.127424 -11.346260 79 43 13
0.753463 -2.127424 -11.346260 79 43 13
0.797784 -2.127424 -11.346260 80 44 13
0.856338 -2.163380 -11.538028 80 44 13
0.898876 -2.157303 -11.505618 80 44 13
0.941176 -2.151261 -11.473390 79 43 13
0.985994 -2.151261 -11.473390 78 43 13
1.016575 -2.121547 -11.314918 77 42 13
1.052055 -2.104110 -11.221918 76 41 12
1.089918 -2.092643 -11.160763 74 40 12
1.133515 -2.092643 -11.160763 72 39 12
1.180328 -2.098361 -11.191257 72 40 12
1.227397 -2.104110 -11.221918 72 40 12
1.271233 -2.104110 -11.221918 71 39 12
1.311475 -2.098361 -11.191257 70 38 12
1.351499 -2.092643 -11.160763 68 36 11
1.395095 -2.092643 -11.160763 65 34 10
1.442623 -2.098361 -11.191257 64 33 9
1.490411 -2.104110 -11.221918 65 33 9
1.534247 -2.104110 -11.221918 65 33 9
1.578082 -2.104110 -11.221918 66 34 9
1.630854 -2.115702 -11.283747 67 35 10
1.674931 -2.115702 -11.283747 69 37 10
1.719008 -2.115702 -11.283747 71 38 11
1.758242 -2.109890 -11.252748 73 39 11
1.802198 -2.109890 -11.252748 76 41 12
1.841096 -2.104110 -11.221918 81 44 13
1.890110 -2.109890 -11.252748 87 48 14
1.934066 -2.109890 -11.252748 91 50 15
1.978022 -2.109890 -11.252748 94 51 15
2.021978 -2.109890 -11.252748 95 52 16
2.065934 -2.109890 -11.252748 94 52 16
2.098361 -2.098361 -11.191257 92 52 16
2.142076 -2.098361 -11.191257 92 52 16
2.185792 -2.098361 -11.191257 94 52 17
2.235616 -2.104110 -11.221918 96 54 17
2.285714 -2.109890 -11.252748 99 55 18
2.336088 -2.115702 -11.283747 101 56 17
2.413408 -2.145252 -11.441340 102 56 17
2.458101 -2.145252 -11.441340 104 57 17
2.475138 -2.121547 -11.314918 106 58 17
2.498630 -2.104110 -11.221918 107 59 18
2.528610 -2.092643 -11.160763 109 60 18
2.565217 -2.086957 -11.130435 111 61 19
2.608696 -2.086957 -11.130435 113 62 18
2.652174 -2.086957 -11.130435 113 62 18
2.695652 -2.086957 -11.130435 112 62 18
2.746594 -2.092643 -11.160763 112 61 18
2.790191 -2.092643 -11.160763 112 60 17
2.833787 -2.092643 -11.160763 111 59 17
2.877384 -2.092643 -11.160763 113 60 17
2.928962 -2.098361 -11.191257 112 59 17
2.972678 -2.098361 -11.191257 111 60 18
3.008174 -2.092643 -11.160763 113 63 20
3.051771 -2.092643 -11.160763 113 63 20
3.095368 -2.092643 -11.160763 114 63 20
3.147541 -2.098361 -11.191257 114 63 20
3.200000 -2.104110 -11.221918 113 63 20
3.252747 -2.109890 -11.252748 112 62 19
3.305785 -2.115702 -11.283747 111 61 18
3.387187 -2.139276 -11.409471 114 62 19
3.431755 -2.139276 -11.409471 114 63 19
3.495798 -2.151261 -11.473390 113 63 19
3.540616 -2.151261 -11.473390 112 62 19
3.585434 -2.151261 -11.473390 113 62 19
3.610028 -2.139276 -11.409471 112 62 19
3.624309 -2.121547 -11.314918 111 61 18
3.648352 -2.109890 -11.252748 111 61 18
3.692308 -2.109890 -11.252748 111 60 18
3.736264 -2.109890 -11.252748 111 60 18
3.769863 -2.104110 -11.221918 109 60 18
3.813699 -2.104110 -11.221918 109 60 18
3.836512 -2.092643 -11.160763 110 60 19
3.880109 -2.092643 -11.160763 110 61 19
3.923706 -2.092643 -11.160763 110 62 19
3.978142 -2.098361 -11.191257 109 61 19
4.032876 -2.104110 -11.221918 110 61 19
4.099174 -2.115702 -11.283747 110 61 19
4.154696 -2.121547 -11.314918 109 61 18
4.233984 -2.139276 -11.409471 108 60 18
4.326761 -2.163380 -11.538028 110 61 18
4.396601 -2.175637 -11.603399 112 62 18
4.429379 -2.169492 -11.570621 112 62 18
4.474576 -2.169492 -11.570621 112 63 19
4.494382 -2.157303 -11.505618 111 62 19
4.539326 -2.157303 -11.505618 112 62 19
4.584270 -2.157303 -11.505618 114 64 19
4.616247 -2.151261 -11.473390 116 65 20
4.648045 -2.145252 -11.441340 115 64 20
4.653739 -2.127424 -11.346260 114 64 20
4.685083 -2.121547 -11.314918 115 65 20
4.716253 -2.115702 -11.283747 116 65 20
4.760331 -2.115702 -11.283747 116 65 21
4.778082 -2.104110 -11.221918 117 66 21
4.821918 -2.104110 -11.221918 118 67 21
4.852459 -2.098361 -11.191257 117 66 21
4.909589 -2.104110 -11.221918 118 67 21
4.980716 -2.115702 -11.283747 119 69 22
5.038674 -2.121547 -11.314918 120 69 22
5.041096 -2.104110 -11.221918 120 70 23
5.057221 -2.092643 -11.160763 120 68 22
5.086957 -2.086957 -11.130435 119 68 22
5.102703 -2.075676 -11.070271 118 65 19
5.132075 -2.070081 -11.040431 117 61 16
5.175202 -2.070081 -11.040431 114 59 16
5.232432 -2.075676 -11.070271 114 60 17
5.289973 -2.081301 -11.100271 115 63 18
5.347826 -2.086957 -11.130435 117 66 21
5.420765 -2.098361 -11.191257 117 67 22
5.464481 -2.098361 -11.191257 116 66 21
5.493188 -2.092643 -11.160763 117 66 21
5.521739 -2.086957 -11.130435 118 66 20
5.565217 -2.086957 -11.130435 116 65 19
5.593496 -2.081301 -11.100271 113 61 18
5.636857 -2.081301 -11.100271 109 62 22
5.680217 -2.081301 -11.100271 112 65 25
5.739130 -2.086957 -11.130435 110 65 25
5.782609 -2.086957 -11.130435 74 55 39
5.826087 -2.086957 -11.130435 48 47 45
5.885559 -2.092643 -11.160763 47 46 45
5.929155 -2.092643 -11.160763 47 46 45
5.972752 -2.092643 -11.160763 46 46 45
5.967567 -2.075676 -11.070271 46 46 45
5.930666 -2.048000 -10.922667 46 46 45
7.044025 -2.415094 -12.880503 46 46 45
7.094340 -2.415094 -12.880503 46 45 44
7.144654 -2.415094 -12.880503 46 46 45
7.194969 -2.415094 -12.880503 47 46 45
-2.658359 -0.814123 -4.253375 16 37 51
-4.790960 -1.476460 -7.713748 16 37 52
-4.760828 -1.476460 -7.713748 16 37 52
-4.669145 -1.457249 -7.613383 16 37 52
-4.529945 -1.422868 -7.433757 17 38 53
-4.484629 -1.417722 -7.406872 17 37 52
-8.800000 -2.800000 -14.628572 17 37 53
-8.742857 -2.800000 -14.628572 18 39 54
-8.685715 -2.800000 -14.628572 18 39 55
-8.477193 -2.750877 -14.371930 18 39 54
-8.362370 -2.731707 -14.271777 18 39 55
-8.277778 -2.722222 -14.222222 19 40 55
-8.222222 -2.722222 -14.222222 19 41 57
-8.166667 -2.722222 -14.222222 19 41 57
-8.111111 -2.722222 -14.222222 20 41 57
-8.055555 -2.722222 -14.222222 20 42 58
-8.027875 -2.731707 -14.271777 17 36 51
-7.972126 -2.731707 -14.271777 7 20 30
-7.888889 -2.722222 -14.222222 7 21 31
-7.806228 -2.712803 -14.173011 14 33 47
-7.724138 -2.703448 -14.124138 19 40 56
-7.695502 -2.712803 -14.173011 19 39 54
-7.640139 -2.712803 -14.173011 10 22 31
-7.584775 -2.712803 -14.173011 3 6 8
-7.006536 -2.562092 -13.385621 6 7 7
-6.954248 -2.562092 -13.385621 16 13 8
-2.090909 -0.890909 -4.654545 26 26 25
-1.894081 -0.814123 -4.253375 26 26 25
-2.052213 -0.889898 -4.649262 26 26 25
-2.034052 -0.889898 -4.649262 26 26 25
-1.855799 -0.819227 -4.280042 26 26 25
-1.833333 -0.816667 -4.266667 26 26 26
-1.812890 -0.814969 -4.257796 26 26 25
-1.794392 -0.814123 -4.253375 26 26 26
-1.777778 -0.814123 -4.253375 26 26 26
-1.761163 -0.814123 -4.253375 27 26 26
-1.744548 -0.814123 -4.253375 26 26 26
-1.731530 -0.815817 -4.262227 26 26 26
-1.366045 -0.769382 -4.019627 44 50 56
-1.343750 -0.765625 -4.000000 32 36 40
-1.321671 -0.761905 -3.980564 6 7 8
-1.297297 -0.756757 -3.953668 0 0 0
-1.278152 -0.754572 -3.942252 0 0 0
-1.256705 -0.750958 -3.923372 0 0 0
-1.239006 -0.749522 -3.915870 0 0 0
-1.223709 -0.749522 -3.915870 0 0 0
-1.213052 -0.752399 -3.930902 2 2 2
-1.203472 -0.756027 -3.949855 16 18 20
-1.188042 -0.756027 -3.949855 24 27 29
-1.176015 -0.758220 -3.961315 20 22 25
-1.163918 -0.760427 -3.972842 18 20 23
-1.151751 -0.762646 -3.984436 20 23 25
-1.138402 -0.764133 -3.992203 31 34 37
-1.125000 -0.765625 -4.000000 39 43 47
-2.135458 -1.561753 -8.159363 17 18 19
-2.116232 -1.571142 -8.208417 14 14 14
-2.084168 -1.571142 -8.208417 3 3 3
-2.098361 -1.606557 -8.393442 1 1 1
-2.086957 -1.623188 -8.480331 0 0 0
-2.062370 -1.629938 -8.515593 3 3 3
-2.033333 -1.633333 -8.533334 17 17 17
-2.000000 -1.633333 -8.533334 23 23 23
-1.966667 -1.633333 -8.533334 26 26 26
-1.937369 -1.636743 -8.551148 82 82 81
-1.900000 -1.633333 -8.533334 153 151 149
-1.866667 -1.633333 -8.533334 174 172 170
-1.833333 -1.633333 -8.533334 174 172 170
-1.792531 -1.626556 -8.497926 161 159 156
-1.759336 -1.626556 -8.497926 130 126 124
-1.715464 -1.616495 -8.445361 124 121 118
-1.679012 -1.613169 -8.427983 141 138 136
-1.616162 -1.583838 -8.274748 148 146 144
-1.564870 -1.564870 -8.175649 162 160 157
-1.511811 -1.543307 -8.062992 189 186 182
-1.477407 -1.540275 -8.047152 202 199 195
-1.437500 -1.531250 -8.000000 211 207 204
-1.403509 -1.528265 -7.984406 214 211 207
-1.369650 -1.525292 -7.968872 227 224 220
-1.335922 -1.522330 -7.953398 237 233 230
-1.299807 -1.516441 -7.922631 238 235 232
-1.259117 -1.504798 -7.861804 238 235 233
-1.221374 -1.496183 -7.816794 240 237 235
-1.188571 -1.493333 -7.801905 243 240 237
-1.155894 -1.490494 -7.787072 237 234 232
-1.125475 -1.490494 -7.787072 223 222 220
-1.092979 -1.487666 -7.772296 217 215 214
-1.060606 -1.484848 -7.757576 217 215 213
-1.030303 -1.484848 -7.757576 219 218 216
-1.000000 -1.484848 -7.757576 219 217 215
-0.969697 -1.484848 -7.757576 210 205 202
-0.939394 -1.484848 -7.757576 194 190 186
-0.909091 -1.484848 -7.757576 189 185 182
-0.878788 -1.484848 -7.757576 188 184 182
-0.846881 -1.482042 -7.742911 181 178 175
-0.816635 -1.482042 -7.742911 155 149 144
-0.786389 -1.482042 -7.742911 150 141 133
-0.756144 -1.482042 -7.742911 163 153 144
-0.725898 -1.482042 -7.742911 172 161 151
-0.695652 -1.482042 -7.742911 170 158 150
-0.666667 -1.484848 -7.757576 152 141 133
-0.636364 -1.484848 -7.757576 145 135 128
-0.609524 -1.493333 -7.801905 158 147 139
-0.580153 -1.496183 -7.816794 161 150 142
-0.552783 -1.504798 -7.861804 157 146 137
-0.525097 -1.513514 -7.907336 149 136 126
-0.497087 -1.522330 -7.953398 143 128 118
-0.466926 -1.525292 -7.968872 142 128 117
-0.437500 -1.531250 -8.000000 142 128 117
-0.407045 -1.534247 -8.015656 143 128 117
-0.377210 -1.540275 -8.047152 142 128 117
-0.345776 -1.540275 -8.047152 140 125 114
-0.314961 -1.543307 -8.062992 125 109 96
-0.284024 -1.546351 -8.078896 109 92 77
-0.253968 -1.555556 -8.126985 107 90 75
-0.226263 -1.583838 -8.274748 108 90 76
-0.195918 -1.600000 -8.359183 108 90 76
-0.164271 -1.609856 -8.410678 105 88 74
-0.132505 -1.623188 -8.480331 94 77 63
-0.099379 -1.623188 -8.480331 88 72 58
-0.066667 -1.633333 -8.533334 100 83 69
-0.033403 -1.636743 -8.551148 111 95 80
0.000000 -1.650526 -8.623158 107 91 77
0.034043 -1.668085 -8.714893 94 79 66
0.068522 -1.678801 -8.770878 101 86 72
0.103004 -1.682403 -8.789700 118 102 88
0.137339 -1.682403 -8.789700 107 84 64
0.171306 -1.678801 -8.770878 84 50 21
0.205567 -1.678801 -8.770878 80 45 14
0.313726 -2.196079 -11.473390 80 44 14
0.358543 -2.196079 -11.473390 80 44 14
0.401114 -2.183844 -11.409471 79 44 14
0.443213 -2.171745 -11.346260 78 43 13
0.484848 -2.159780 -11.283747 78 43 13
0.527473 -2.153846 -11.252748 78 42 13
0.571429 -2.153846 -11.252748 79 43 13
0.615385 -2.153846 -11.252748 79 44 13
0.661157 -2.159780 -11.283747 80 44 14
0.709141 -2.171745 -11.346260 80 45 14
0.753463 -2.171745 -11.346260 81 46 14
0.795580 -2.165746 -11.314918 81 45 14
0.837466 -2.159780 -11.283747 80 44 14
0.893855 -2.189944 -11.441340 80 44 14
0.938547 -2.189944 -11.441340 80 44 13
0.980501 -2.183844 -11.409471 79 43 13
1.008219 -2.147945 -11.221918 78 43 13
1.049180 -2.142076 -11.191257 78 43 14
1.086957 -2.130435 -11.130435 76 42 13
1.130435 -2.130435 -11.130435 75 40 12
1.177112 -2.136240 -11.160763 74 40 12
1.224044 -2.142076 -11.191257 73 40 12
1.267760 -2.142076 -11.191257 72 39 12
1.307902 -2.136240 -11.160763 72 38 12
1.351499 -2.136240 -11.160763 70 37 11
1.395095 -2.136240 -11.160763 68 36 10
1.442623 -2.142076 -11.191257 67 36 10
1.486339 -2.142076 -11.191257 67 36 10
1.530055 -2.142076 -11.191257 67 36 10
1.573771 -2.142076 -11.191257 67 35 10
1.621918 -2.147945 -11.221918 68 36 10
1.674931 -2.159780 -11.283747 69 36 10
1.719008 -2.159780 -11.283747 71 37 11
1.758242 -2.153846 -11.252748 74 39 11
1.797260 -2.147945 -11.221918 77 41 12
1.841096 -2.147945 -11.221918 81 43 13
1.884932 -2.147945 -11.221918 86 45 13
1.928767 -2.147945 -11.221918 90 47 13
1.972603 -2.147945 -11.221918 93 48 13
2.016438 -2.147945 -11.221918 93 49 14
2.060274 -2.147945 -11.221918 92 51 16
2.092643 -2.136240 -11.160763 92 51 17
2.136240 -2.136240 -11.160763 92 50 15
2.179837 -2.136240 -11.160763 92 49 15
2.229508 -2.142076 -11.191257 95 51 16
2.273224 -2.142076 -11.191257 99 55 18
2.316940 -2.142076 -11.191257 101 56 18
2.380165 -2.159780 -11.283747 102 54 16
2.424242 -2.159780 -11.283747 104 55 15
2.461539 -2.153846 -11.252748 106 56 16
2.491803 -2.142076 -11.191257 107 57 17
2.521739 -2.130435 -11.130435 109 59 18
2.565217 -2.130435 -11.130435 111 60 18
2.608696 -2.130435 -11.130435 112 61 18
2.652174 -2.130435 -11.130435 112 61 18
2.695652 -2.130435 -11.130435 112 62 19
2.739130 -2.130435 -11.130435 112 61 18
2.790191 -2.136240 -11.160763 111 60 18
2.833787 -2.136240 -11.160763 112 62 19
2.885246 -2.142076 -11.191257 114 63 19
2.936986 -2.147945 -11.221918 112 62 19
2.980822 -2.147945 -11.221918 111 61 19
3.008174 -2.136240 -11.160763 112 61 19
3.043478 -2.130435 -11.130435 113 62 19
3.086957 -2.130435 -11.130435 113 62 20
3.130435 -2.130435 -11.130435 113 62 20
3.191257 -2.142076 -11.191257 113 61 19
3.243836 -2.147945 -11.221918 113 62 19
3.287671 -2.147945 -11.221918 113 63 19
3.349862 -2.159780 -11.283747 114 64 20
3.403315 -2.165746 -11.314918 113 63 19
3.447514 -2.165746 -11.314918 112 62 19
3.491713 -2.165746 -11.314918 112 62 19
3.526171 -2.159780 -11.283747 111 61 19
3.570248 -2.159780 -11.283747 111 61 19
3.594521 -2.147945 -11.221918 113 63 20
3.638356 -2.147945 -11.221918 114 64 20
3.682192 -2.147945 -11.221918 113 63 20
3.726027 -2.147945 -11.221918 111 62 19
3.769863 -2.147945 -11.221918 111 61 19
3.813699 -2.147945 -11.221918 110 60 18
3.836512 -2.136240 -11.160763 110 60 18
3.880109 -2.136240 -11.160763 109 60 18
3.923706 -2.136240 -11.160763 110 61 19
3.978142 -2.142076 -11.191257 110 61 18
4.032876 -2.147945 -11.221918 109 60 18
4.076712 -2.147945 -11.221918 110 60 18
4.131868 -2.153846 -11.252748 110 60 18
4.187328 -2.159780 -11.283747 109 59 18
4.243094 -2.165746 -11.314918 110 60 18
4.396601 -2.220963 -11.603399 111 60 17
4.429379 -2.214689 -11.570621 111 60 17
4.461972 -2.208451 -11.538028 112 61 18
4.494382 -2.202247 -11.505618 111 61 18
4.539326 -2.202247 -11.505618 111 61 18
4.584270 -2.202247 -11.505618 111 61 19
4.629213 -2.202247 -11.505618 115 63 19
4.661065 -2.196079 -11.473390 115 64 20
4.666667 -2.177778 -11.377778 114 64 20
4.698061 -2.171745 -11.346260 114 63 19
4.729282 -2.165746 -11.314918 116 65 20
4.760331 -2.159780 -11.283747 118 66 20
4.791209 -2.153846 -11.252748 119 67 21
4.821918 -2.147945 -11.221918 119 66 20
4.852459 -2.142076 -11.191257 119 66 20
4.909589 -2.147945 -11.221918 118 66 20
4.953424 -2.147945 -11.221918 118 66 20
4.997260 -2.147945 -11.221918 119 66 20
5.013624 -2.136240 -11.160763 119 65 19
5.043478 -2.130435 -11.130435 118 63 19
5.086957 -2.130435 -11.130435 115 61 18
5.116531 -2.124661 -11.100271 115 60 17
5.145946 -2.118919 -11.070271 116 61 18
5.189189 -2.118919 -11.070271 116 62 19
5.246613 -2.124661 -11.100271 116 64 20
5.289973 -2.124661 -11.100271 118 66 20
5.347826 -2.130435 -11.130435 121 69 22
5.405994 -2.136240 -11.160763 122 69 22
5.449591 -2.136240 -11.160763 120 67 21
5.493188 -2.136240 -11.160763 119 65 20
5.521739 -2.130435 -11.130435 119 65 18
5.565217 -2.130435 -11.130435 119 63 17
5.608696 -2.130435 -11.130435 116 61 16
5.652174 -2.130435 -11.130435 115 61 17
5.695652 -2.130435 -11.130435 115 62 18
5.739130 -2.130435 -11.130435 110 62 22
5.782609 -2.130435 -11.130435 66 48 32
5.826087 -2.130435 -11.130435 35 35 35
5.885559 -2.136240 -11.160763 34 35 35
5.913043 -2.130435 -11.130435 34 35 35
5.940380 -2.124661 -11.100271 34 35 35
5.903743 -2.096257 -10.951872 34 35 35
5.930666 -2.090667 -10.922667 33 34 35
5.989305 -2.096257 -10.951872 33 34 35
7.006211 -2.434783 -12.720497 33 34 35
7.100000 -2.450000 -12.800000 33 34 34
7.150000 -2.450000 -12.800000 34 35 35
-4.839320 -1.512287 -7.742911 16 36 51
-4.790960 -1.506591 -7.713748 16 36 51
-4.734082 -1.498127 -7.670412 16 36 51
-4.669145 -1.486989 -7.613383 16 37 52
-4.639405 -1.486989 -7.613383 16 37 52
-8.857142 -2.857143 -14.628572 16 37 52
-8.800000 -2.857143 -14.628572 17 37 53
-8.742857 -2.857143 -14.628572 17 38 54
-8.533334 -2.807018 -14.371930 17 38 54
-8.418118 -2.787457 -14.271777 18 38 54
-8.333333 -2.777778 -14.222222 18 39 54
-8.277778 -2.777778 -14.222222 18 39 55
-8.222222 -2.777778 -14.222222 19 40 56
-8.166667 -2.777778 -14.222222 19 41 57
-8.111111 -2.777778 -14.222222 19 41 57
-8.055555 -2.777778 -14.222222 19 41 57
-8.027875 -2.787457 -14.271777 16 36 50
-7.972126 -2.787457 -14.271777 7 20 30
-7.888889 -2.777778 -14.222222 7 21 31
-7.806228 -2.768166 -14.173011 14 33 47
-7.750865 -2.768166 -14.173011 19 40 56
-7.695502 -2.768166 -14.173011 19 39 54
-7.640139 -2.768166 -14.173011 10 22 31
-7.584775 -2.768166 -14.173011 3 6 8
-2.090909 -0.909091 -4.654545 27 27 27
-2.072727 -0.909091 -4.654545 28 28 27
-2.052213 -0.908059 -4.649262 28 28 27
-1.874477 -0.836820 -4.284519 28 27 27
-1.851929 -0.834202 -4.271116 28 28 27
-1.831426 -0.832466 -4.262227 28 28 27
-1.812890 -0.831601 -4.257796 28 28 27
-1.798127 -0.832466 -4.262227 28 28 27
-1.781478 -0.832466 -4.262227 28 28 27
-1.764828 -0.832466 -4.262227 28 28 28
-1.748179 -0.832466 -4.262227 28 28 27
-1.731530 -0.832466 -4.262227 27 27 27
-1.714880 -0.832466 -4.262227 28 28 27
-1.856975 -0.937866 -4.801876 60 64 69
-1.821138 -0.929152 -4.757259 110 115 121
-1.366045 -0.785083 -4.019627 25 28 31
-1.349020 -0.784314 -4.015687 15 16 18
-1.325536 -0.779727 -3.992203 2 2 2
-1.303589 -0.775946 -3.972842 0 0 0
-1.280617 -0.771456 -3.949855 0 0 0
-1.259117 -0.767754 -3.930902 0 0 0
-1.241379 -0.766284 -3.923372 0 0 0
-1.224880 -0.765550 -3.919617 0 0 0
-1.210728 -0.766284 -3.923372 2 2 2
-1.200000 -0.769231 -3.938462 10 11 12
-1.186898 -0.770713 -3.946050 14 15 16
-1.172613 -0.771456 -3.949855 15 15 16
-1.160542 -0.773694 -3.961315 11 12 13
-1.148400 -0.775946 -3.972842 17 19 22
-1.136187 -0.778210 -3.984436 28 31 35
-1.121714 -0.778968 -3.988316 35 39 44
-1.107212 -0.779727 -3.992203 32 36 42
-1.090555 -0.778968 -3.988316 18 22 26
-1.067698 -0.773694 -3.961315 14 17 20
-1.050193 -0.772201 -3.953668 18 21 24
-2.053640 -1.532567 -7.846743 17 18 20
-2.099404 -1.590457 -8.143141 14 14 15
-2.071713 -1.593626 -8.159363 3 3 3
-2.106996 -1.646091 -8.427983 1 1 1
-2.086957 -1.656315 -8.480331 0 0 0
-2.062370 -1.663202 -8.515593 3 3 3
-2.033333 -1.666667 -8.533334 18 18 18
-2.000000 -1.666667 -8.533334 22 23 23
-1.966667 -1.666667 -8.533334 9 10 10
-1.933333 -1.666667 -8.533334 18 18 17
-1.900000 -1.666667 -8.533334 82 82 81
-1.866667 -1.666667 -8.533334 152 151 149
-1.833333 -1.666667 -8.533334 172 170 168
-1.796258 -1.663202 -8.515593 155 152 150
-1.759336 -1.659751 -8.497926 124 121 118
-1.719008 -1.652893 -8.462810 121 118 116
-1.679012 -1.646091 -8.427983 137 134 132
-1.619433 -1.619433 -8.291498 148 146 143
-1.568000 -1.600000 -8.192000 161 159 156
-1.514793 -1.577909 -8.078896 188 184 181
-1.477407 -1.571709 -8.047152 199 195 192
-1.437500 -1.562500 -8.000000 211 207 204
-1.406250 -1.562500 -8.000000 222 219 215
-1.372320 -1.559454 -7.984406 233 230 226
-1.338521 -1.556420 -7.968872 237 234 231
-1.304854 -1.553398 -7.953398 237 234 231
-1.263969 -1.541426 -7.892100 236 234 231
-1.223709 -1.529637 -7.831740 236 233 231
-1.188571 -1.523810 -7.801905 235 233 231
-1.155894 -1.520913 -7.787072 224 223 221
-1.125475 -1.520913 -7.787072 216 214 213
-1.090909 -1.515152 -7.757576 215 214 212
-1.060606 -1.515152 -7.757576 216 214 213
-1.028355 -1.512287 -7.742911 219 217 216
-0.998110 -1.512287 -7.742911 215 211 208
-0.969697 -1.515152 -7.757576 199 191 185
-0.939394 -1.515152 -7.757576 191 182 175
-0.909091 -1.515152 -7.757576 190 180 173
-0.877127 -1.512287 -7.742911 191 181 174
-0.846881 -1.512287 -7.742911 179 171 164
-0.816635 -1.512287 -7.742911 150 142 136
-0.786389 -1.512287 -7.742911 142 134 128
-0.756144 -1.512287 -7.742911 147 138 131
-0.727273 -1.515152 -7.757576 156 146 138
-0.696970 -1.515152 -7.757576 166 155 147
-0.666667 -1.515152 -7.757576 166 155 147
-0.636364 -1.515152 -7.757576 157 147 139
-0.609524 -1.523810 -7.801905 159 149 141
-0.580153 -1.526718 -7.816794 159 149 141
-0.552783 -1.535509 -7.861804 157 145 137
-0.525097 -1.544402 -7.907336 149 136 126
-0.496124 -1.550388 -7.937984 142 128 117
-0.466019 -1.553398 -7.953398 142 127 116
-0.437500 -1.562500 -8.000000 142 128 117
-0.406250 -1.562500 -8.000000 142 128 117
-0.375734 -1.565558 -8.015656 142 127 116
-0.345098 -1.568627 -8.031373 137 121 110
-0.314342 -1.571709 -8.047152 118 101 88
-0.282908 -1.571709 -8.047152 108 90 76
-0.253968 -1.587302 -8.126985 108 90 76
-0.227181 -1.622718 -8.308316 108 90 76
-0.195918 -1.632653 -8.359183 107 90 76
-0.164271 -1.642710 -8.410678 100 84 70
-0.132505 -1.656315 -8.480331 89 73 59
-0.099585 -1.659751 -8.497926 88 72 58
-0.066667 -1.666667 -8.533334 100 84 69
-0.033473 -1.673640 -8.569037 101 85 71
0.000000 -1.684211 -8.623158 83 69 56
0.034115 -1.705757 -8.733476 73 59 47
0.068670 -1.716738 -8.789700 89 74 61
0.103004 -1.716738 -8.789700 115 98 84
0.137339 -1.716738 -8.789700 102 75 52
0.170940 -1.709402 -8.752137 82 46 16
0.205128 -1.709402 -8.752137 80 43 13
0.313726 -2.240896 -11.473390 80 42 13
0.358543 -2.240896 -11.473390 80 42 13
0.398892 -2.216067 -11.346260 79 43 13
0.438356 -2.191781 -11.221918 80 43 13
0.479564 -2.179837 -11.160763 80 44 13
0.523161 -2.179837 -11.160763 80 43 13
0.569863 -2.191781 -11.221918 80 43 13
0.615385 -2.197802 -11.252748 81 44 14
0.661157 -2.203857 -11.283747 81 45 14
0.705234 -2.203857 -11.283747 81 45 14
0.749311 -2.203857 -11.283747 82 46 14
0.793388 -2.203857 -11.283747 82 46 15
0.835165 -2.197802 -11.252748 81 44 14
0.879121 -2.197802 -11.252748 80 44 14
0.923077 -2.197802 -11.252748 80 45 14
0.964384 -2.191781 -11.221918 80 45 14
1.005464 -2.185792 -11.191257 80 45 14
1.043478 -2.173913 -11.130435 80 46 15
1.086957 -2.173913 -11.130435 79 45 15
1.130435 -2.173913 -11.130435 77 42 13
1.173913 -2.173913 -11.130435 75 41 12
1.220708 -2.179837 -11.160763 74 41 12
1.264305 -2.179837 -11.160763 74 41 13
1.307902 -2.179837 -11.160763 73 39 12
1.351499 -2.179837 -11.160763 71 37 11
1.395095 -2.179837 -11.160763 69 36 10
1.442623 -2.185792 -11.191257 69 35 10
1.486339 -2.185792 -11.191257 69 36 10
1.530055 -2.185792 -11.191257 69 35 10
1.573771 -2.185792 -11.191257 68 35 10
1.617486 -2.185792 -11.191257 68 35 10
1.665753 -2.191781 -11.221918 69 35 10
1.714286 -2.197802 -11.252748 71 37 10
1.758242 -2.197802 -11.252748 75 39 11
1.797260 -2.191781 -11.221918 78 41 12
1.836066 -2.185792 -11.191257 82 44 13
1.879781 -2.185792 -11.191257 87 46 13
1.923497 -2.185792 -11.191257 91 48 14
1.967213 -2.185792 -11.191257 92 49 14
2.016438 -2.191781 -11.221918 93 50 16
2.060274 -2.191781 -11.221918 93 51 16
2.092643 -2.179837 -11.160763 93 51 16
2.136240 -2.179837 -11.160763 92 49 15
2.179837 -2.179837 -11.160763 92 49 15
2.223433 -2.179837 -11.160763 94 51 16
2.267030 -2.179837 -11.160763 98 54 17
2.310627 -2.179837 -11.160763 101 56 18
2.360656 -2.185792 -11.191257 103 56 17
2.410959 -2.191781 -11.221918 105 56 16
2.448087 -2.185792 -11.191257 107 57 16
2.485014 -2.179837 -11.160763 108 59 17
2.521739 -2.173913 -11.130435 111 61 18
2.565217 -2.173913 -11.130435 112 61 18
2.608696 -2.173913 -11.130435 112 60 18
2.652174 -2.173913 -11.130435 110 59 17
2.695652 -2.173913 -11.130435 109 58 17
2.739130 -2.173913 -11.130435 110 58 17
2.782609 -2.173913 -11.130435 110 58 17
2.833787 -2.179837 -11.160763 112 60 17
2.885246 -2.185792 -11.191257 113 61 18
2.936986 -2.191781 -11.221918 112 60 18
2.964578 -2.179837 -11.160763 111 59 17
3.000000 -2.173913 -11.130435 112 60 18
3.043478 -2.173913 -11.130435 115 64 20
3.078591 -2.168022 -11.100271 115 65 21
3.121951 -2.168022 -11.100271 114 63 20
3.173913 -2.173913 -11.130435 113 62 19
3.226158 -2.179837 -11.160763 114 63 20
3.278688 -2.185792 -11.191257 114 65 21
3.331507 -2.191781 -11.221918 115 66 21
3.375342 -2.191781 -11.221918 114 65 20
3.419178 -2.191781 -11.221918 113 63 20
3.463014 -2.191781 -11.221918 112 62 19
3.506849 -2.191781 -11.221918 112 62 19
3.550685 -2.191781 -11.221918 113 62 19
3.584699 -2.185792 -11.191257 114 64 20
3.628415 -2.185792 -11.191257 115 65 20
3.672131 -2.185792 -11.191257 114 64 20
3.726027 -2.191781 -11.221918 112 62 19
3.769863 -2.191781 -11.221918 112 62 19
3.803279 -2.185792 -11.191257 111 61 18
3.846995 -2.185792 -11.191257 111 60 18
3.880109 -2.179837 -11.160763 111 60 18
3.923706 -2.179837 -11.160763 111 61 19
3.978142 -2.185792 -11.191257 110 60 18
4.021858 -2.185792 -11.191257 109 58 17
4.076712 -2.191781 -11.221918 109 58 17
4.120548 -2.191781 -11.221918 109 58 17
4.164383 -2.191781 -11.221918 108 58 17
4.219780 -2.197802 -11.252748 109 58 17
4.275482 -2.203857 -11.283747 109 58 17
4.367688 -2.228412 -11.409471 108 58 17
4.424581 -2.234637 -11.441340 110 60 17
4.469274 -2.234637 -11.441340 111 61 18
4.513967 -2.234637 -11.441340 112 61 19
4.558659 -2.234637 -11.441340 112 61 18
4.616247 -2.240896 -11.473390 113 62 18
4.635098 -2.228412 -11.409471 114 62 19
4.666667 -2.222222 -11.377778 115 63 19
4.698061 -2.216067 -11.346260 114 62 19
4.729282 -2.209945 -11.314918 115 63 19
4.747253 -2.197802 -11.252748 116 63 18
4.791209 -2.197802 -11.252748 116 63 18
4.821918 -2.191781 -11.221918 116 63 18
4.852459 -2.185792 -11.191257 117 63 18
4.896175 -2.185792 -11.191257 117 63 18
4.926431 -2.179837 -11.160763 116 62 18
4.956522 -2.173913 -11.130435 116 62 18
5.000000 -2.173913 -11.130435 117 63 18
5.043478 -2.173913 -11.130435 118 64 19
5.073171 -2.168022 -11.100271 117 64 19
5.116531 -2.168022 -11.100271 117 63 19
5.159892 -2.168022 -11.100271 119 64 19
5.203252 -2.168022 -11.100271 120 65 20
5.246613 -2.168022 -11.100271 121 66 20
5.289973 -2.168022 -11.100271 121 68 20
5.333333 -2.168022 -11.100271 122 68 21
5.391304 -2.173913 -11.130435 122 67 21
5.434783 -2.173913 -11.130435 120 66 19
5.478261 -2.173913 -11.130435 120 65 19
5.521739 -2.173913 -11.130435 119 64 18
5.565217 -2.173913 -11.130435 119 64 18
5.608696 -2.173913 -11.130435 117 63 18
5.652174 -2.173913 -11.130435 116 62 18
5.695652 -2.173913 -11.130435 116 61 18
5.739130 -2.173913 -11.130435 108 58 19
5.782609 -2.173913 -11.130435 52 36 23
5.826087 -2.173913 -11.130435 13 18 21
5.869565 -2.173913 -11.130435 11 17 21
5.913043 -2.173913 -11.130435 12 17 21
5.940380 -2.168022 -11.100271 12 17 22
5.919571 -2.144772 -10.981234 11 17 21
5.946524 -2.139037 -10.951872 12 17 21
6.037736 -2.156334 -11.040431 12 17 22
6.795181 -2.409639 -12.337349 12 17 21
-4.830189 -1.539623 -7.728302 16 36 50
-4.790960 -1.536723 -7.713748 16 36 51
-4.734082 -1.528090 -7.670412 16 36 51
-8.971429 -2.914286 -14.628572 16 36 51
-8.914286 -2.914286 -14.628572 16 36 51
-8.857142 -2.914286 -14.628572 17 37 52
-8.800000 -2.914286 -14.628572 17 37 53
-8.589474 -2.863158 -14.371930 17 37 53
-8.473867 -2.843206 -14.271777 17 38 53
-8.388889 -2.833333 -14.222222 17 38 53
-8.333333 -2.833333 -14.222222 18 38 54
-8.277778 -2.833333 -14.222222 18 39 54
-8.222222 -2.833333 -14.222222 18 39 55
-8.166667 -2.833333 -14.222222 19 40 56
-8.111111 -2.833333 -14.222222 19 41 57
-8.055555 -2.833333 -14.222222 19 40 56
-8.027875 -2.843206 -14.271777 16 35 50
-7.972126 -2.843206 -14.271777 7 20 31
-7.888889 -2.833333 -14.222222 7 21 32
-7.806228 -2.823529 -14.173011 14 32 47
-7.750865 -2.823529 -14.173011 18 39 55
-7.695502 -2.823529 -14.173011 18 38 53
-7.640139 -2.823529 -14.173011 10 22 30
-7.584775 -2.823529 -14.173011 3 6 8
-2.072727 -0.927273 -4.654545 29 29 28
-2.052213 -0.926220 -4.649262 29 29 29
-1.870564 -0.851775 -4.275574 29 29 28
-1.850000 -0.850000 -4.266667 29 29 28
-1.831426 -0.849115 -4.262227 29 29 28
-1.816667 -0.850000 -4.266667 29 29 28
-1.800000 -0.850000 -4.266667 29 29 29
-1.783333 -0.850000 -4.266667 29 29 29
-1.766667 -0.850000 -4.266667 29 29 29
-1.750000 -0.850000 -4.266667 29 29 29
-1.733333 -0.850000 -4.266667 29 29 28
-1.714880 -0.849115 -4.262227 29 29 29
-1.700000 -0.850000 -4.266667 29 29 28
-1.875733 -0.956624 -4.801876 29 30 31
-1.839721 -0.947735 -4.757259 52 56 61
-1.819026 -0.946636 -4.751740 78 84 91
-1.800464 -0.946636 -4.751740 53 59 66
-1.366045 -0.800785 -4.019627 11 11 11
-1.349020 -0.800000 -4.015687 4 4 4
-1.328125 -0.796875 -4.000000 0 0 0
-1.308666 -0.794547 -3.988316 0 0 0
-1.284333 -0.789168 -3.961315 0 0 0
-1.261539 -0.784615 -3.938462 0 0 0
-1.243762 -0.783109 -3.930902 0 0 0
-1.226054 -0.781609 -3.923372 0 0 0
-1.213052 -0.783109 -3.930902 2 2 2
-1.200000 -0.784615 -3.938462 6 6 6
-1.186898 -0.786127 -3.946050 11 11 11
-1.171484 -0.786127 -3.946050 15 15 15
-1.160542 -0.789168 -3.961315 9 9 9
-1.148400 -0.791465 -3.972842 16 18 20
-1.135083 -0.793003 -3.980564 27 31 35
-1.119534 -0.793003 -3.980564 34 39 44
-1.103984 -0.793003 -3.980564 33 38 43
-1.087379 -0.792233 -3.976699 19 23 27
-1.065637 -0.787645 -3.953668 14 17 21
-1.049180 -0.786885 -3.949855 18 21 24
-1.034749 -0.787645 -3.953668 18 19 20
-2.070588 -1.600000 -8.031373 14 14 14
-2.135524 -1.675565 -8.410678 3 3 3
-2.115702 -1.685950 -8.462810 1 1 1
-2.082645 -1.685950 -8.462810 1 1 1
-2.058091 -1.692946 -8.497926 4 4 4
-2.033333 -1.700000 -8.533334 17 18 19
-2.000000 -1.700000 -8.533334 17 20 23
-1.966667 -1.700000 -8.533334 6 8 9
-1.933333 -1.700000 -8.533334 2 2 2
-1.900000 -1.700000 -8.533334 18 17 17
-1.866667 -1.700000 -8.533334 82 82 81
-1.833333 -1.700000 -8.533334 151 149 147
-1.796258 -1.696466 -8.515593 145 143 140
-1.759336 -1.692946 -8.497926 119 116 114
-1.719008 -1.685950 -8.462810 109 106 104
-1.675565 -1.675565 -8.410678 118 115 113
-1.622718 -1.655172 -8.308316 145 143 140
-1.574297 -1.638554 -8.224899 161 158 155
-1.514793 -1.609468 -8.078896 187 184 181
-1.477407 -1.603143 -8.047152 197 193 190
-1.437500 -1.593750 -8.000000 211 208 204
-1.406250 -1.593750 -8.000000 230 226 223
-1.372320 -1.590643 -7.984406 235 232 229
-1.338521 -1.587549 -7.968872 236 233 230
-1.299807 -1.578337 -7.922631 236 233 230
-1.263969 -1.572254 -7.892100 235 233 230
-1.223709 -1.560229 -7.831740 230 227 225
-1.188571 -1.554286 -7.801905 222 221 219
-1.155894 -1.551331 -7.787072 213 212 210
-1.123340 -1.548387 -7.772296 212 210 209
-1.090909 -1.545455 -7.757576 215 213 211
-1.058601 -1.542533 -7.742911 220 218 215
-1.026415 -1.539623 -7.728302 225 221 218
-0.998110 -1.542533 -7.742911 226 220 216
-0.969697 -1.545455 -7.757576 218 210 205
-0.939394 -1.545455 -7.757576 211 202 196
-0.909091 -1.545455 -7.757576 203 194 187
-0.877127 -1.542533 -7.742911 197 187 179
-0.846881 -1.542533 -7.742911 184 174 166
-0.816635 -1.542533 -7.742911 157 148 141
-0.786389 -1.542533 -7.742911 143 135 128
-0.757576 -1.545455 -7.757576 142 134 128
-0.727273 -1.545455 -7.757576 146 138 131
-0.696970 -1.545455 -7.757576 155 146 138
-0.666667 -1.545455 -7.757576 163 153 145
-0.637571 -1.548387 -7.772296 162 153 145
-0.609524 -1.554286 -7.801905 161 151 144
-0.581262 -1.560229 -7.831740 160 150 142
-0.552783 -1.566219 -7.861804 157 146 137
-0.525097 -1.575290 -7.907336 149 136 126
-0.496124 -1.581395 -7.937984 143 129 118
-0.466019 -1.584466 -7.953398 143 128 117
-0.436647 -1.590643 -7.984406 142 128 117
-0.406250 -1.593750 -8.000000 142 127 116
-0.375000 -1.593750 -8.000000 141 126 115
-0.343750 -1.593750 -8.000000 131 115 103
-0.313726 -1.600000 -8.031373 113 95 82
-0.282353 -1.600000 -8.031373 107 90 76
-0.254473 -1.622266 -8.143141 107 90 76
-0.227642 -1.658537 -8.325203 107 90 76
-0.195918 -1.665306 -8.359183 105 88 75
-0.164271 -1.675565 -8.410678 94 78 65
-0.132505 -1.689441 -8.480331 86 71 57
-0.099585 -1.692946 -8.497926 85 69 56
-0.066946 -1.707113 -8.569037 84 69 55
-0.033684 -1.717895 -8.623158 76 62 49
0.000000 -1.725159 -8.659619 73 60 48
0.034115 -1.739872 -8.733476 79 65 52
0.068522 -1.747323 -8.770878 91 76 64
0.103004 -1.751073 -8.789700 110 93 77
0.137045 -1.747323 -8.770878 98 68 43
0.170576 -1.739872 -8.733476 83 47 16
0.204691 -1.739872 -8.733476 81 44 14
0.312849 -2.279330 -11.441340 80 43 13
0.357542 -2.279330 -11.441340 80 44 13
0.394521 -2.235616 -11.221918 80 43 13
0.434783 -2.217391 -11.130435 80 43 13
0.478261 -2.217391 -11.130435 81 44 14
0.523161 -2.223433 -11.160763 80 43 13
0.569863 -2.235616 -11.221918 80 43 13
0.615385 -2.241758 -11.252748 80 43 13
0.659341 -2.241758 -11.252748 80 44 13
0.703297 -2.241758 -11.252748 81 44 13
0.749311 -2.247934 -11.283747 81 45 13
0.791209 -2.241758 -11.252748 82 45 13
0.835165 -2.241758 -11.252748 82 45 14
0.876712 -2.235616 -11.221918 82 46 14
0.918033 -2.229508 -11.191257 82 46 15
0.961749 -2.229508 -11.191257 81 46 15
1.000000 -2.217391 -11.130435 81 47 15
1.043478 -2.217391 -11.130435 82 47 15
1.086957 -2.217391 -11.130435 81 46 14
1.130435 -2.217391 -11.130435 78 43 13
1.173913 -2.217391 -11.130435 77 41 12
1.217391 -2.217391 -11.130435 76 41 12
1.264305 -2.223433 -11.160763 76 41 12
1.307902 -2.223433 -11.160763 75 40 12
1.351499 -2.223433 -11.160763 72 39 11
1.395095 -2.223433 -11.160763 71 38 11
1.442623 -2.229508 -11.191257 71 38 11
1.486339 -2.229508 -11.191257 71 38 11
1.530055 -2.229508 -11.191257 70 37 11
1.573771 -2.229508 -11.191257 70 37 11
1.617486 -2.229508 -11.191257 70 37 11
1.665753 -2.235616 -11.221918 72 39 12
1.709589 -2.235616 -11.221918 74 40 12
1.753425 -2.235616 -11.221918 76 41 12
1.797260 -2.235616 -11.221918 78 42 12
1.841096 -2.235616 -11.221918 82 44 13
1.879781 -2.229508 -11.191257 87 47 14
1.918256 -2.223433 -11.160763 92 50 15
1.967213 -2.229508 -11.191257 95 53 17
2.010929 -2.229508 -11.191257 96 54 18
2.054645 -2.229508 -11.191257 95 53 17
2.092643 -2.223433 -11.160763 95 53 17
2.130435 -2.217391 -11.130435 95 53 17
2.173913 -2.217391 -11.130435 96 54 17
2.217391 -2.217391 -11.130435 98 55 17
2.267030 -2.223433 -11.160763 100 56 18
2.304348 -2.217391 -11.130435 103 58 19
2.354223 -2.223433 -11.160763 106 60 20
